-2.673 -0.011 4.856
-2.678 0.004 4.858
-2.541 0.189 4.599
-2.511 0.230 4.531
-2.511 0.230 4.531
-2.431 0.531 4.515
-2.430 0.530 4.510
-2.410 0.619 4.513
-2.408 0.617 4.510
-2.412 0.610 4.510
-2.390 0.697 4.503
-2.373 0.712 4.470
-2.374 0.774 4.504
-2.377 0.770 4.520
-2.374 0.775 4.510
-2.381 0.775 4.519
-2.377 0.790 4.521
-2.380 1.020 4.711
-2.380 1.028 4.711
-2.378 1.053 4.731
-2.380 1.066 4.747
-2.387 1.065 4.750
-2.323 1.046 4.544
-2.326 1.130 4.613
-2.320 1.175 4.643
-2.325 1.190 4.652
-2.311 1.282 4.689
-2.312 1.289 4.686
-2.310 1.294 4.674
-2.298 1.290 4.661
-2.298 1.297 4.655
-2.272 1.288 4.578
-2.949 -0.710 5.134
-2.950 -0.712 5.140
-2.990 -0.704 5.265
-2.981 -0.688 5.251
-2.926 -0.612 5.116
-2.822 -0.519 4.899
-2.830 -0.498 4.914
-2.825 -0.498 4.928
-2.825 -0.496 4.929
-2.842 -0.487 4.967
-2.828 -0.429 4.985
-2.773 -0.343 4.878
-2.776 -0.336 4.875
-2.766 -0.323 4.878
-2.770 -0.316 4.877
-2.774 -0.310 4.881
-2.765 -0.309 4.885
-2.763 -0.297 4.886
-2.742 -0.252 4.850
-2.739 -0.242 4.835
-2.734 -0.228 4.831
-2.738 -0.221 4.842
-2.731 -0.210 4.845
-2.738 -0.213 4.843
-2.731 -0.191 4.846
-2.727 -0.185 4.850
-2.723 -0.179 4.849
-2.731 -0.179 4.846
-2.727 -0.172 4.852
-2.708 -0.127 4.838
-2.709 -0.119 4.829
-2.707 -0.112 4.838
-2.693 -0.073 4.836
-2.697 -0.067 4.840
-2.688 -0.058 4.833
-2.693 -0.034 4.841
-2.688 -0.029 4.843
-2.687 -0.029 4.840
-2.690 -0.010 4.850
-2.690 -0.010 4.850
-2.690 -0.010 4.850
-2.687 -0.001 4.863
-2.683 0.012 4.854
-2.678 0.010 4.854
-2.549 0.238 4.628
-2.545 0.301 4.652
-2.437 0.529 4.506
-2.441 0.537 4.513
-2.435 0.542 4.508
-2.418 0.620 4.508
-2.427 0.621 4.513
-2.425 0.620 4.512
-2.425 0.613 4.510
-2.415 0.626 4.508
-2.424 0.626 4.514
-2.402 0.709 4.511
-2.377 0.715 4.458
-2.377 0.715 4.458
-2.385 0.715 4.465
-2.392 0.903 4.625
-2.392 0.894 4.619
-2.402 1.032 4.732
-2.397 1.042 4.733
-2.389 1.045 4.726
-2.401 1.048 4.739
-2.391 1.058 4.742
-2.399 1.065 4.754
-2.399 1.078 4.764
-2.398 1.090 4.774
-2.314 1.289 4.666
-2.318 1.290 4.670
-2.307 1.293 4.649
-2.989 -0.688 5.227
-2.931 -0.622 5.110
-2.947 -0.611 5.167
-2.948 -0.612 5.174
-2.969 -0.606 5.216
-2.958 -0.608 5.208
-2.967 -0.611 5.220
-2.995 -0.607 5.304
-2.837 -0.485 4.923
-2.853 -0.457 5.001
-2.841 -0.441 4.984
-2.837 -0.417 4.963
-2.805 -0.383 4.902
-2.784 -0.337 4.867
-2.779 -0.328 4.867
-2.773 -0.319 4.868
-2.782 -0.291 4.892
-2.747 -0.244 4.828
-2.743 -0.246 4.802
-2.754 -0.242 4.843
-2.743 -0.233 4.826
-2.741 -0.205 4.834
-2.738 -0.205 4.841
-2.741 -0.198 4.847
-2.734 -0.185 4.846
-2.742 -0.185 4.844
-2.738 -0.192 4.851
-2.746 -0.192 4.848
-2.738 -0.179 4.848
-2.734 -0.173 4.855
-2.740 -0.160 4.852
-2.729 -0.151 4.849
-2.727 -0.141 4.833
-2.715 -0.135 4.820
-2.714 -0.126 4.823
-2.716 -0.116 4.818
-2.711 -0.104 4.826
-2.709 -0.078 4.837
-2.703 -0.067 4.832
-2.698 -0.051 4.834
-2.694 -0.022 4.825
-2.699 -0.028 4.836
-2.700 -0.028 4.832
-2.692 0.001 4.838
-2.693 0.011 4.845
-2.685 0.021 4.848
-2.685 0.038 4.829
-2.561 0.299 4.651
-2.558 0.320 4.682
-2.439 0.584 4.504
-2.439 0.584 4.506
-2.432 0.615 4.517
-2.432 0.620 4.509
-2.432 0.624 4.509
-2.430 0.626 4.515
-2.413 0.717 4.529
-2.404 0.713 4.489
-2.403 0.712 4.489
-2.414 1.027 4.747
-2.406 1.040 4.738
-2.410 1.038 4.738
-2.412 1.070 4.753
-2.410 1.064 4.758
-2.407 1.088 4.771
-2.326 1.295 4.670
-2.325 1.297 4.675
-2.317 1.294 4.657
-2.920 -0.612 5.057
-2.947 -0.601 5.115
-2.960 -0.607 5.168
-2.967 -0.599 5.205
-3.009 -0.605 5.317
-3.013 -0.601 5.315
-2.848 -0.438 4.967
-2.850 -0.427 4.961
-2.792 -0.380 4.839
-2.792 -0.337 4.865
-2.785 -0.329 4.858
-2.781 -0.320 4.852
-2.782 -0.306 4.872
-2.781 -0.312 4.860
-2.789 -0.301 4.869
-2.781 -0.292 4.877
-2.746 -0.211 4.835
-2.750 -0.201 4.841
-2.749 -0.203 4.842
-2.750 -0.192 4.839
-2.750 -0.184 4.841
-2.746 -0.178 4.845
-2.742 -0.172 4.847
-2.750 -0.163 4.848
-2.740 -0.150 4.830
-2.723 -0.130 4.803
-2.725 -0.131 4.810
-2.723 -0.123 4.820
-2.723 -0.116 4.817
-2.720 -0.108 4.821
-2.716 -0.071 4.834
-2.704 -0.028 4.827
-2.708 -0.028 4.825
-2.703 0.011 4.851
-2.694 0.023 4.842
-2.694 0.037 4.826
-2.687 0.048 4.827
-2.563 0.257 4.627
-2.569 0.287 4.638
-2.568 0.287 4.637
-2.564 0.283 4.636
-2.563 0.287 4.638
-2.565 0.281 4.633
-2.566 0.280 4.633
-2.562 0.287 4.638
-2.568 0.302 4.649
-2.556 0.307 4.635
-2.438 0.619 4.504
-2.438 0.619 4.505
-2.406 0.710 4.478
-2.417 0.721 4.516
-2.417 0.767 4.553
-2.406 0.796 4.520
-2.400 0.793 4.501
-2.397 0.796 4.512
-2.391 0.793 4.492
-2.399 0.872 4.563
-2.424 1.019 4.726
-2.417 1.020 4.727
-2.425 1.066 4.754
-2.370 1.119 4.633
-2.366 1.125 4.630
-2.364 1.194 4.681
-2.333 1.291 4.667
-2.333 1.292 4.663
-2.342 1.296 4.686
-2.884 -0.601 4.911
-2.927 -0.597 5.052
-2.924 -0.594 5.036
-2.929 -0.593 5.040
-2.927 -0.594 5.056
-3.002 -0.600 5.262
-3.023 -0.603 5.321
-2.859 -0.441 4.955
-2.869 -0.444 4.966
-2.850 -0.416 4.949
-2.848 -0.404 4.934
-2.836 -0.402 4.920
-2.789 -0.313 4.847
-2.792 -0.308 4.858
-2.798 -0.297 4.865
-2.789 -0.293 4.865
-2.759 -0.243 4.803
-2.760 -0.212 4.837
-2.760 -0.212 4.837
-2.760 -0.212 4.837
-2.760 -0.202 4.822
-2.757 -0.191 4.827
-2.746 -0.156 4.829
-2.734 -0.142 4.803
-2.740 -0.140 4.816
-2.732 -0.123 4.815
-2.728 -0.108 4.809
-2.729 -0.096 4.807
-2.731 -0.072 4.831
-2.731 -0.070 4.833
-2.712 -0.027 4.811
-2.696 0.052 4.807
-2.691 0.046 4.806
-2.693 0.072 4.815
-2.602 0.233 4.686
-2.580 0.279 4.637
-2.576 0.279 4.631
-2.580 0.272 4.633
-2.579 0.286 4.639
-2.577 0.287 4.642
-2.572 0.286 4.637
-2.573 0.280 4.637
-2.579 0.293 4.642
-2.572 0.293 4.645
-2.572 0.295 4.645
-2.575 0.301 4.643
-2.457 0.615 4.515
-2.447 0.613 4.502
-2.422 0.774 4.518
-2.439 1.012 4.733
-2.434 1.004 4.729
-2.438 1.076 4.770
-2.377 1.117 4.628
-2.374 1.126 4.633
-2.370 1.131 4.628
-2.363 1.138 4.624
-2.363 1.143 4.620
-2.361 1.145 4.607
-2.365 1.152 4.608
-2.359 1.150 4.602
-2.360 1.192 4.629
-2.340 1.289 4.637
-2.340 1.288 4.636
-2.340 1.289 4.637
-2.340 1.288 4.636
-2.329 1.287 4.625
-2.887 -0.608 4.902
-2.888 -0.602 4.886
-2.951 -0.592 5.094
-2.972 -0.589 5.153
-3.007 -0.590 5.241
-2.861 -0.425 4.940
-2.860 -0.414 4.933
-2.849 -0.394 4.919
-2.811 -0.350 4.847
-2.813 -0.347 4.865
-2.802 -0.312 4.841
-2.794 -0.298 4.845
-2.798 -0.283 4.870
-2.796 -0.283 4.861
-2.769 -0.197 4.835
-2.759 -0.166 4.823
-2.757 -0.165 4.829
-2.757 -0.155 4.815
-2.759 -0.158 4.817
-2.744 -0.142 4.803
-2.746 -0.137 4.799
-2.735 -0.123 4.791
-2.735 -0.123 4.792
-2.735 -0.123 4.792
-2.707 0.019 4.809
-2.706 0.040 4.803
-2.701 0.036 4.804
-2.699 0.046 4.806
-2.702 0.056 4.805
-2.698 0.063 4.808
-2.700 0.069 4.809
-2.698 0.078 4.801
-2.682 0.154 4.809
-2.619 0.235 4.687
-2.587 0.281 4.637
-2.586 0.274 4.631
-2.586 0.289 4.641
-2.586 0.296 4.644
-2.584 0.304 4.650
-2.566 0.468 4.700
-2.431 0.776 4.528
-2.433 0.784 4.541
-2.443 1.019 4.729
-2.450 1.092 4.799
-2.383 1.126 4.633
-2.380 1.130 4.626
-2.380 1.139 4.627
-2.368 1.159 4.609
-2.335 1.288 4.606
-2.881 -0.605 4.847
-2.891 -0.599 4.884
-2.899 -0.585 4.899
-2.875 -0.449 4.937
-2.873 -0.425 4.941
-2.876 -0.423 4.937
-2.863 -0.412 4.928
-2.861 -0.404 4.924
-2.863 -0.401 4.913
-2.851 -0.384 4.893
-2.850 -0.377 4.900
-2.846 -0.369 4.897
-2.815 -0.297 4.857
-2.809 -0.302 4.844
-2.812 -0.290 4.858
-2.775 -0.242 4.799
-2.787 -0.231 4.827
-2.789 -0.230 4.834
-2.789 -0.222 4.830
-2.786 -0.212 4.830
-2.776 -0.197 4.824
-2.779 -0.183 4.825
-2.767 -0.174 4.826
-2.768 -0.163 4.809
-2.759 -0.153 4.811
-2.758 -0.145 4.804
-2.762 -0.148 4.800
-2.748 -0.109 4.791
-2.724 0.008 4.800
-2.722 0.018 4.797
-2.712 0.022 4.794
-2.710 0.033 4.797
-2.712 0.043 4.796
-2.706 0.049 4.797
-2.710 0.055 4.802
-2.706 0.063 4.804
-2.706 0.069 4.805
-2.707 0.072 4.805
-2.702 0.084 4.804
-2.702 0.097 4.795
-2.697 0.090 4.795
-2.686 0.137 4.799
-2.684 0.140 4.801
-2.682 0.149 4.796
-2.684 0.164 4.810
-2.628 0.230 4.698
-2.619 0.231 4.677
-2.603 0.237 4.634
-2.605 0.247 4.640
-2.593 0.277 4.632
-2.603 0.280 4.639
-2.594 0.284 4.639
-2.600 0.287 4.641
-2.596 0.304 4.635
-2.593 0.311 4.643
-2.616 0.470 4.815
-2.596 0.474 4.773
-2.580 0.473 4.711
-2.466 0.788 4.595
-2.434 0.794 4.517
-2.448 1.027 4.712
-2.440 1.038 4.686
-2.446 1.053 4.740
-2.464 1.078 4.778
-2.401 1.130 4.635
-2.390 1.133 4.628
-2.397 1.137 4.634
-2.385 1.147 4.614
-2.898 -0.599 4.855
-2.895 -0.590 4.868
-2.914 -0.581 4.914
-2.965 -0.557 5.085
-2.934 -0.456 5.069
-2.860 -0.392 4.907
-2.860 -0.382 4.894
-2.848 -0.363 4.876
-2.847 -0.353 4.886
-2.847 -0.349 4.873
-2.817 -0.302 4.839
-2.823 -0.295 4.842
-2.820 -0.289 4.855
-2.820 -0.282 4.860
-2.798 -0.223 4.820
-2.789 -0.188 4.821
-2.777 -0.174 4.816
-2.769 -0.154 4.801
-2.769 -0.152 4.803
-2.770 -0.143 4.794
-2.758 -0.136 4.792
-2.763 -0.137 4.800
-2.758 -0.127 4.785
-2.755 -0.116 4.784
-2.756 -0.104 4.785
-2.749 -0.098 4.791
-2.750 -0.060 4.818
-2.750 -0.036 4.831
-2.742 -0.027 4.811
-2.742 -0.027 4.811
-2.729 -0.000 4.787
-2.717 0.028 4.789
-2.722 0.037 4.791
-2.726 0.041 4.794
-2.718 0.050 4.791
-2.714 0.064 4.791
-2.713 0.067 4.795
-2.711 0.078 4.805
-2.712 0.090 4.790
-2.709 0.097 4.791
-2.706 0.103 4.793
-2.702 0.109 4.797
-2.692 0.166 4.797
-2.619 0.236 4.640
-2.608 0.242 4.615
-2.599 0.241 4.591
-2.647 0.250 4.731
-2.692 0.263 4.864
-2.604 0.272 4.634
-2.606 0.304 4.639
-2.602 0.298 4.636
-2.602 0.311 4.645
-2.603 0.327 4.650
-2.600 0.335 4.643
-2.600 0.335 4.643
-2.610 0.464 4.754
-2.597 0.479 4.724
-2.597 0.480 4.747
-2.469 0.796 4.585
-2.464 0.798 4.587
-2.435 0.799 4.509
-2.430 0.796 4.490
-2.459 1.023 4.718
-2.452 1.029 4.693
-2.448 1.030 4.692
-2.442 1.044 4.688
-2.406 1.121 4.635
-2.389 1.155 4.607
-2.394 1.150 4.615
-2.393 1.162 4.606
-2.519 1.583 5.254
-2.900 -0.594 4.853
-2.897 -0.587 4.851
-2.967 -0.568 5.038
-2.968 -0.562 5.050
-2.929 -0.493 4.978
-2.927 -0.494 4.983
-2.953 -0.450 5.078
-2.871 -0.391 4.897
-2.867 -0.391 4.893
-2.867 -0.384 4.875
-2.865 -0.371 4.879
-2.860 -0.372 4.886
-2.857 -0.364 4.884
-2.860 -0.360 4.877
-2.831 -0.298 4.845
-2.831 -0.290 4.844
-2.798 -0.222 4.819
-2.798 -0.203 4.814
-2.793 -0.203 4.808
-2.791 -0.195 4.815
-2.793 -0.181 4.814
-2.788 -0.176 4.814
-2.789 -0.166 4.807
-2.778 -0.164 4.802
-2.781 -0.152 4.798
-2.772 -0.144 4.792
-2.772 -0.135 4.785
-2.770 -0.134 4.784
-2.767 -0.123 4.779
-2.766 -0.121 4.777
-2.763 -0.107 4.779
-2.760 -0.100 4.779
-2.754 -0.059 4.802
-2.756 -0.043 4.817
-2.758 -0.034 4.816
-2.709 -0.011 4.689
-2.739 0.002 4.777
-2.737 0.010 4.781
-2.735 0.021 4.782
-2.730 0.032 4.782
-2.735 0.031 4.780
-2.731 0.044 4.779
-2.724 0.051 4.774
-2.719 0.072 4.790
-2.715 0.084 4.790
-2.719 0.090 4.781
-2.716 0.096 4.784
-2.700 0.156 4.780
-2.700 0.156 4.780
-2.702 0.174 4.790
-2.702 0.166 4.795
-2.695 0.173 4.791
-2.702 0.183 4.792
-2.610 0.236 4.581
-2.686 0.261 4.805
-2.642 0.293 4.697
-2.601 0.334 4.635
-2.622 0.448 4.772
-2.593 0.472 4.695
-2.593 0.472 4.695
-2.481 0.755 4.558
-2.475 0.796 4.590
-2.476 0.800 4.578
-2.449 0.805 4.525
-2.442 0.801 4.502
-2.436 0.795 4.473
-2.452 0.808 4.524
-2.432 0.796 4.468
-2.483 1.006 4.737
-2.460 1.014 4.691
-2.468 1.018 4.694
-2.397 1.156 4.609
-2.408 1.159 4.623
-2.401 1.150 4.614
-2.407 1.158 4.620
-2.401 1.162 4.606
-2.399 1.170 4.609
-2.395 1.176 4.607
-2.389 1.182 4.597
-2.389 1.192 4.602
-2.969 -0.550 5.017
-2.977 -0.549 5.061
-2.933 -0.502 4.971
-2.928 -0.494 4.948
-2.970 -0.453 5.082
-2.970 -0.453 5.082
-2.970 -0.453 5.082
-2.873 -0.375 4.869
-2.859 -0.347 4.862
-2.839 -0.302 4.841
-2.804 -0.214 4.807
-2.807 -0.205 4.807
-2.805 -0.187 4.806
-2.797 -0.174 4.799
-2.801 -0.181 4.810
-2.790 -0.152 4.795
-2.781 -0.143 4.789
-2.785 -0.134 4.783
-2.774 -0.125 4.768
-2.775 -0.126 4.769
-2.777 -0.130 4.778
-2.769 -0.113 4.773
-2.771 -0.111 4.773
-2.769 -0.101 4.774
-2.775 -0.074 4.804
-2.770 -0.054 4.804
-2.770 -0.062 4.797
-2.763 -0.049 4.791
-2.766 -0.033 4.800
-2.762 -0.025 4.799
-2.753 -0.025 4.786
-2.749 -0.006 4.773
-2.749 -0.001 4.776
-2.746 0.006 4.776
-2.743 0.021 4.772
-2.743 0.020 4.773
-2.743 0.020 4.773
-2.735 0.032 4.775
-2.735 0.032 4.775
-2.735 0.032 4.775
-2.724 0.060 4.767
-2.729 0.084 4.789
-2.723 0.096 4.781
-2.708 0.152 4.768
-2.712 0.155 4.769
-2.712 0.155 4.770
-2.707 0.166 4.781
-2.710 0.179 4.792
-2.708 0.196 4.784
-2.696 0.263 4.807
-2.690 0.279 4.815
-2.689 0.293 4.804
-2.633 0.338 4.700
-2.636 0.438 4.772
-2.626 0.469 4.755
-2.595 0.476 4.672
-2.610 0.474 4.725
-2.610 0.479 4.710
-2.602 0.473 4.684
-2.617 0.474 4.728
-2.606 0.477 4.706
-2.574 0.477 4.607
-2.467 0.727 4.478
-2.469 0.723 4.479
-2.482 0.752 4.544
-2.481 0.762 4.551
-2.483 0.764 4.562
-2.480 0.762 4.552
-2.502 0.792 4.618
-2.409 1.162 4.608
-2.406 1.169 4.608
-2.403 1.200 4.605
-2.405 1.211 4.618
-2.533 1.564 5.198
-2.526 1.576 5.195
-2.516 1.578 5.183
-2.520 1.589 5.189
-2.523 1.582 5.184
-2.972 -0.558 5.015
-2.990 -0.558 5.040
-2.933 -0.497 4.925
-2.931 -0.490 4.938
-2.929 -0.488 4.931
-2.930 -0.489 4.935
-2.965 -0.450 5.061
-2.968 -0.438 5.054
-2.890 -0.375 4.891
-2.881 -0.369 4.878
-2.872 -0.355 4.863
-2.809 -0.205 4.787
-2.814 -0.204 4.789
-2.812 -0.194 4.790
-2.817 -0.189 4.804
-2.805 -0.174 4.799
-2.809 -0.181 4.805
-2.808 -0.167 4.800
-2.801 -0.159 4.798
-2.800 -0.151 4.793
-2.802 -0.150 4.794
-2.789 -0.146 4.774
-2.783 -0.132 4.773
-2.778 -0.117 4.758
-2.778 -0.117 4.757
-2.777 -0.100 4.766
-2.774 -0.088 4.778
-2.772 -0.083 4.776
-2.772 -0.083 4.773
-2.772 -0.083 4.775
-2.778 -0.058 4.780
-2.776 -0.041 4.790
-2.775 -0.034 4.791
-2.770 -0.025 4.800
-2.760 -0.012 4.766
-2.762 -0.018 4.775
-2.757 -0.006 4.763
-2.757 -0.002 4.770
-2.754 0.000 4.764
-2.755 0.008 4.764
-2.744 0.029 4.754
-2.745 0.039 4.753
-2.738 0.040 4.757
-2.735 0.040 4.755
-2.735 0.050 4.754
-2.736 0.059 4.753
-2.735 0.072 4.756
-2.737 0.083 4.774
-2.733 0.090 4.774
-2.740 0.098 4.779
-2.721 0.139 4.753
-2.721 0.139 4.753
-2.718 0.146 4.758
-2.714 0.170 4.758
-2.712 0.183 4.759
-2.712 0.184 4.776
-2.708 0.203 4.772
-2.708 0.211 4.782
-2.702 0.251 4.780
-2.704 0.269 4.800
-2.698 0.278 4.801
-2.703 0.276 4.800
-2.705 0.277 4.797
-2.693 0.285 4.800
-2.700 0.285 4.793
-2.696 0.292 4.797
-2.689 0.305 4.799
-2.629 0.451 4.729
-2.633 0.455 4.733
-2.632 0.460 4.722
-2.531 0.636 4.569
-2.476 0.732 4.477
-2.501 0.765 4.568
-2.503 0.772 4.568
-2.451 0.791 4.452
-2.457 0.800 4.463
-2.468 1.173 4.744
-2.421 1.165 4.619
-2.414 1.171 4.610
-2.417 1.179 4.607
-2.411 1.188 4.608
-2.412 1.199 4.600
-2.412 1.198 4.597
-2.411 1.220 4.626
-2.540 1.554 5.182
-2.534 1.571 5.191
-2.530 1.570 5.161
-2.930 -0.486 4.891
-2.932 -0.480 4.911
-3.042 -0.498 5.197
-3.042 -0.498 5.196
-2.974 -0.441 5.043
-2.972 -0.444 5.048
-2.972 -0.444 5.048
-2.972 -0.444 5.048
-2.974 -0.434 5.056
-2.901 -0.365 4.888
-2.817 -0.206 4.772
-2.816 -0.199 4.773
-2.813 -0.174 4.799
-2.817 -0.167 4.791
-2.824 -0.174 4.802
-2.809 -0.158 4.794
-2.818 -0.165 4.794
-2.817 -0.157 4.797
-2.813 -0.151 4.799
-2.807 -0.137 4.781
-2.792 -0.131 4.771
-2.791 -0.119 4.753
-2.783 -0.107 4.757
-2.782 -0.086 4.772
-2.790 -0.083 4.771
-2.788 -0.070 4.773
-2.784 -0.077 4.779
-2.779 -0.058 4.776
-2.781 -0.067 4.782
-2.783 -0.061 4.774
-2.774 -0.045 4.750
-2.776 -0.049 4.775
-2.778 -0.051 4.774
-2.774 -0.028 4.776
-2.774 -0.032 4.759
-2.772 -0.020 4.761
-2.764 -0.000 4.751
-2.760 0.002 4.758
-2.751 0.028 4.752
-2.749 0.053 4.750
-2.745 0.047 4.754
-2.745 0.060 4.742
-2.741 0.053 4.751
-2.742 0.066 4.739
-2.741 0.108 4.773
-2.724 0.133 4.749
-2.726 0.139 4.744
-2.723 0.146 4.745
-2.729 0.152 4.757
-2.721 0.168 4.755
-2.725 0.175 4.760
-2.717 0.178 4.763
-2.722 0.186 4.766
-2.719 0.194 4.758
-2.715 0.203 4.766
-2.712 0.209 4.769
-2.712 0.228 4.774
-2.709 0.258 4.776
-2.708 0.282 4.786
-2.700 0.298 4.792
-2.703 0.292 4.789
-2.692 0.330 4.788
-2.657 0.353 4.698
-2.660 0.360 4.703
-2.648 0.444 4.729
-2.598 0.468 4.616
-2.525 0.611 4.507
-2.547 0.705 4.620
-2.552 0.728 4.663
-2.552 0.728 4.661
-2.551 0.739 4.672
-2.516 0.764 4.576
-2.507 0.769 4.572
-2.507 0.771 4.576
-2.517 0.785 4.601
-2.524 0.799 4.614
-2.534 1.020 4.802
-2.541 1.031 4.810
-2.477 1.168 4.741
-2.481 1.167 4.741
-2.476 1.174 4.743
-2.430 1.165 4.614
-2.422 1.170 4.604
-2.430 1.171 4.608
-2.426 1.177 4.604
-2.427 1.184 4.603
-2.423 1.191 4.599
-2.416 1.191 4.601
-2.420 1.198 4.600
-2.420 1.198 4.601
-2.417 1.206 4.601
-2.419 1.211 4.593
-2.567 1.424 5.153
-2.574 1.436 5.164
-2.574 1.436 5.164
-2.574 1.436 5.164
-2.574 1.436 5.164
-2.574 1.436 5.164
-2.542 1.562 5.176
-2.541 1.565 5.158
-2.878 -0.539 4.714
-2.940 -0.555 4.861
-3.045 -0.498 5.169
-3.041 -0.495 5.174
-3.045 -0.497 5.165
-3.041 -0.492 5.153
-3.040 -0.489 5.165
-3.039 -0.488 5.160
-3.034 -0.482 5.142
-3.033 -0.477 5.147
-2.978 -0.439 5.037
-2.978 -0.439 5.037
-2.980 -0.428 5.042
-2.983 -0.419 5.055
-3.024 -0.417 5.178
-2.826 -0.181 4.800
-2.826 -0.164 4.787
-2.832 -0.170 4.797
-2.815 -0.154 4.765
-2.812 -0.141 4.770
-2.795 -0.070 4.765
-2.791 -0.062 4.767
-2.786 -0.061 4.769
-2.784 -0.052 4.765
-2.783 -0.040 4.747
-2.778 -0.025 4.749
-2.778 -0.033 4.756
-2.776 -0.032 4.760
-2.773 -0.005 4.752
-2.771 -0.000 4.743
-2.768 0.002 4.751
-2.768 0.006 4.757
-2.765 0.013 4.742
-2.765 0.012 4.756
-2.759 0.024 4.745
-2.757 0.024 4.744
-2.762 0.032 4.736
-2.758 0.044 4.740
-2.753 0.036 4.743
-2.753 0.046 4.747
-2.753 0.060 4.737
-2.750 0.066 4.747
-2.748 0.071 4.737
-2.756 0.077 4.753
-2.750 0.083 4.754
-2.752 0.096 4.762
-2.742 0.122 4.755
-2.733 0.139 4.740
-2.729 0.145 4.741
-2.730 0.163 4.754
-2.730 0.168 4.758
-2.733 0.175 4.751
-2.728 0.182 4.755
-2.728 0.183 4.755
-2.723 0.190 4.756
-2.726 0.193 4.757
-2.724 0.205 4.748
-2.719 0.209 4.752
-2.723 0.215 4.755
-2.719 0.221 4.754
-2.712 0.276 4.785
-2.716 0.282 4.780
-2.716 0.286 4.775
-2.711 0.288 4.780
-2.710 0.299 4.773
-2.705 0.313 4.774
-2.705 0.330 4.775
-2.694 0.332 4.774
-2.698 0.397 4.818
-2.693 0.410 4.807
-2.544 0.690 4.597
-2.564 0.722 4.648
-2.562 0.732 4.657
-2.520 0.754 4.558
-2.512 0.754 4.544
-2.520 0.755 4.564
-2.536 0.762 4.596
-2.527 0.755 4.574
-2.526 0.792 4.612
-2.529 0.800 4.616
-2.533 0.944 4.705
-2.521 0.942 4.686
-2.543 1.012 4.781
-2.481 1.150 4.718
-2.437 1.169 4.612
-2.438 1.174 4.605
-2.435 1.181 4.604
-2.430 1.177 4.602
-2.435 1.193 4.604
-2.424 1.205 4.601
-2.425 1.206 4.604
-2.428 1.211 4.597
-2.421 1.211 4.596
-2.544 1.572 5.153
-2.880 -0.532 4.680
-2.865 -0.519 4.649
-3.040 -0.491 5.133
-3.038 -0.482 5.119
-3.039 -0.487 5.127
-3.037 -0.485 5.119
-3.041 -0.487 5.149
-3.032 -0.477 5.117
-2.979 -0.445 4.997
-2.981 -0.440 5.013
-3.033 -0.411 5.167
-3.033 -0.404 5.177
-2.871 -0.225 4.845
-2.862 -0.214 4.841
-2.865 -0.206 4.841
-2.834 -0.174 4.784
-2.828 -0.154 4.768
-2.827 -0.156 4.777
-2.818 -0.145 4.762
-2.821 -0.138 4.764
-2.811 -0.131 4.760
-2.802 -0.121 4.744
-2.812 -0.078 4.780
-2.800 -0.062 4.763
-2.800 -0.070 4.764
-2.793 -0.053 4.758
-2.780 -0.043 4.736
-2.784 -0.032 4.750
-2.778 -0.015 4.743
-2.782 -0.021 4.749
-2.777 -0.013 4.729
-2.776 -0.004 4.737
-2.778 -0.001 4.734
-2.774 0.006 4.735
-2.771 0.014 4.731
-2.769 0.013 4.738
-2.767 0.021 4.734
-2.756 0.077 4.745
-2.756 0.114 4.748
-2.740 0.129 4.738
-2.747 0.127 4.740
-2.734 0.146 4.719
-2.736 0.145 4.736
-2.738 0.152 4.745
-2.738 0.167 4.739
-2.735 0.181 4.733
-2.733 0.187 4.729
-2.730 0.189 4.728
-2.726 0.191 4.739
-2.725 0.204 4.741
-2.725 0.196 4.735
-2.728 0.215 4.742
-2.725 0.221 4.749
-2.725 0.265 4.775
-2.726 0.273 4.768
-2.718 0.293 4.758
-2.716 0.307 4.761
-2.701 0.342 4.769
-2.632 0.608 4.728
-2.633 0.608 4.730
-2.626 0.603 4.734
-2.631 0.610 4.732
-2.626 0.610 4.731
-2.593 0.756 4.729
-2.530 0.759 4.566
-2.538 0.757 4.576
-2.541 0.764 4.594
-2.481 0.788 4.440
-2.448 1.177 4.606
-2.442 1.180 4.603
-2.445 1.191 4.604
-2.440 1.196 4.593
-2.435 1.220 4.605
-2.597 1.462 5.198
-2.597 1.462 5.198
-2.597 1.462 5.198
-2.597 1.462 5.198
-2.598 1.470 5.191
-2.621 1.621 5.334
-2.856 -0.495 4.612
-3.043 -0.486 5.102
-3.037 -0.477 5.094
-2.990 -0.442 5.001
-3.053 -0.411 5.180
-2.879 -0.224 4.832
-2.867 -0.215 4.827
-2.868 -0.205 4.813
-2.836 -0.165 4.770
-2.837 -0.155 4.761
-2.827 -0.145 4.755
-2.832 -0.145 4.764
-2.812 -0.118 4.724
-2.815 -0.128 4.748
-2.803 -0.056 4.753
-2.793 -0.040 4.737
-2.793 -0.032 4.726
-2.785 -0.025 4.731
-2.782 0.006 4.725
-2.780 0.015 4.726
-2.776 0.017 4.729
-2.775 0.026 4.718
-2.775 0.034 4.718
-2.766 0.040 4.720
-2.770 0.057 4.717
-2.762 0.067 4.724
-2.766 0.063 4.717
-2.766 0.076 4.729
-2.767 0.071 4.723
-2.768 0.085 4.750
-2.764 0.105 4.752
-2.757 0.121 4.744
-2.757 0.129 4.736
-2.755 0.134 4.724
-2.745 0.134 4.727
-2.747 0.134 4.731
-2.745 0.146 4.717
-2.739 0.164 4.722
-2.740 0.173 4.716
-2.741 0.174 4.731
-2.743 0.181 4.726
-2.734 0.187 4.728
-2.737 0.195 4.728
-2.733 0.196 4.727
-2.740 0.199 4.729
-2.735 0.227 4.735
-2.736 0.256 4.766
-2.736 0.264 4.756
-2.729 0.281 4.759
-2.726 0.300 4.753
-2.723 0.306 4.748
-2.714 0.321 4.757
-2.717 0.331 4.755
-2.715 0.335 4.759
-2.711 0.332 4.760
-2.717 0.338 4.754
-2.637 0.605 4.720
-2.636 0.605 4.707
-2.633 0.610 4.724
-2.571 0.677 4.598
-2.571 0.679 4.605
-2.571 0.685 4.610
-2.589 0.724 4.671
-2.552 0.757 4.585
-2.555 0.759 4.607
-2.561 0.760 4.613
-2.566 0.764 4.636
-2.560 0.761 4.618
-2.566 0.764 4.636
-2.484 0.785 4.435
-2.483 0.795 4.440
-2.449 1.182 4.599
-2.452 1.188 4.593
-2.449 1.197 4.599
-2.446 1.206 4.585
-2.448 1.211 4.594
-2.880 -0.516 4.633
-2.868 -0.504 4.614
-2.869 -0.495 4.607
-3.041 -0.508 5.053
-3.041 -0.501 5.060
-3.034 -0.501 5.062
-3.009 -0.442 5.027
-3.092 -0.458 5.219
-3.093 -0.458 5.220
-3.054 -0.410 5.166
-3.059 -0.413 5.167
-3.020 -0.379 5.090
-3.025 -0.361 5.115
-2.882 -0.221 4.816
-2.880 -0.215 4.825
-2.875 -0.208 4.825
-2.867 -0.195 4.800
-2.868 -0.187 4.799
-2.842 -0.163 4.745
-2.834 -0.153 4.751
-2.835 -0.144 4.738
-2.824 -0.127 4.724
-2.802 -0.048 4.736
-2.804 -0.039 4.729
-2.789 0.014 4.714
-2.742 0.028 4.608
-2.783 0.025 4.714
-2.783 0.033 4.712
-2.786 0.043 4.721
-2.779 0.043 4.720
-2.782 0.037 4.716
-2.775 0.050 4.715
-2.773 0.063 4.712
-2.778 0.057 4.714
-2.781 0.076 4.730
-2.773 0.075 4.726
-2.772 0.100 4.745
-2.741 0.099 4.640
-2.776 0.108 4.747
-2.765 0.114 4.735
-2.771 0.114 4.730
-2.761 0.122 4.723
-2.759 0.142 4.713
-2.754 0.136 4.716
-2.756 0.148 4.714
-2.747 0.155 4.714
-2.748 0.164 4.711
-2.747 0.184 4.712
-2.744 0.190 4.717
-2.744 0.190 4.717
-2.744 0.203 4.718
-2.742 0.212 4.718
-2.742 0.221 4.727
-2.741 0.235 4.731
-2.736 0.272 4.747
-2.736 0.281 4.742
-2.731 0.293 4.749
-2.729 0.328 4.750
-2.724 0.334 4.750
-2.718 0.341 4.749
-2.578 0.676 4.594
-2.599 0.727 4.675
-2.608 0.741 4.701
-2.571 0.768 4.623
-2.571 0.768 4.623
-2.496 0.760 4.430
-2.495 0.756 4.408
-2.498 0.756 4.414
-2.492 0.764 4.411
-2.492 0.763 4.409
-2.494 0.765 4.422
-2.481 0.782 4.404
-2.553 0.928 4.665
-2.512 1.142 4.689
-2.474 1.189 4.639
-2.474 1.188 4.640
-2.871 -0.486 4.604
-3.039 -0.499 5.046
-3.034 -0.460 5.037
-3.025 -0.445 5.018
-2.975 -0.374 4.941
-3.019 -0.370 5.064
-3.032 -0.338 5.120
-3.031 -0.344 5.105
-2.893 -0.224 4.836
-2.878 -0.203 4.796
-2.879 -0.194 4.789
-2.871 -0.187 4.785
-2.866 -0.178 4.781
-2.853 -0.173 4.756
-2.847 -0.153 4.744
-2.838 -0.135 4.734
-2.816 -0.047 4.736
-2.816 -0.039 4.726
-2.805 -0.025 4.726
-2.809 -0.031 4.721
-2.788 0.026 4.710
-2.796 0.026 4.709
-2.792 0.020 4.713
-2.792 0.032 4.711
-2.792 0.041 4.712
-2.789 0.050 4.721
-2.784 0.056 4.709
-2.781 0.063 4.713
-2.785 0.070 4.715
-2.782 0.075 4.716
-2.772 0.133 4.713
-2.764 0.134 4.715
-2.764 0.131 4.715
-2.767 0.141 4.709
-2.767 0.149 4.711
-2.756 0.156 4.704
-2.757 0.165 4.701
-2.753 0.183 4.698
-2.750 0.190 4.708
-2.752 0.203 4.709
-2.747 0.196 4.714
-2.744 0.232 4.705
-2.746 0.225 4.711
-2.667 0.228 4.504
-2.669 0.235 4.510
-2.748 0.261 4.732
-2.745 0.262 4.739
-2.747 0.272 4.746
-2.743 0.272 4.740
-2.733 0.290 4.717
-2.733 0.303 4.722
-2.728 0.310 4.729
-2.729 0.304 4.728
-2.730 0.350 4.748
-2.731 0.358 4.747
-2.729 0.359 4.753
-2.728 0.394 4.772
-2.608 0.473 4.502
-2.611 0.730 4.677
-2.607 0.730 4.678
-2.615 0.742 4.701
-2.485 0.755 4.354
-2.492 0.759 4.391
-2.606 0.886 4.746
-2.605 0.880 4.750
-2.599 0.884 4.752
-2.600 0.891 4.748
-2.547 1.018 4.679
-2.537 1.126 4.738
-2.512 1.148 4.683
-2.629 1.618 5.267
-2.928 -0.527 4.705
-3.024 -0.503 4.953
-3.034 -0.489 4.984
-3.032 -0.453 5.024
-2.984 -0.368 4.935
-3.001 -0.361 4.974
-3.023 -0.362 5.046
-3.022 -0.357 5.059
-2.892 -0.214 4.808
-2.892 -0.204 4.802
-2.870 -0.182 4.766
-2.873 -0.175 4.767
-2.860 -0.161 4.754
-2.860 -0.153 4.748
-2.863 -0.152 4.748
-2.848 -0.143 4.735
-2.855 -0.136 4.741
-2.831 -0.046 4.744
-2.818 -0.023 4.713
-2.803 0.005 4.704
-2.799 0.020 4.702
-2.799 0.032 4.704
-2.798 0.050 4.711
-2.793 0.056 4.709
-2.788 0.062 4.700
-2.793 0.070 4.701
-2.789 0.077 4.713
-2.778 0.143 4.705
-2.774 0.149 4.705
-2.769 0.159 4.707
-2.766 0.164 4.704
-2.760 0.171 4.698
-2.767 0.171 4.695
-2.763 0.177 4.694
-2.759 0.183 4.695
-2.762 0.191 4.699
-2.763 0.204 4.706
-2.753 0.212 4.710
-2.753 0.219 4.710
-2.759 0.216 4.709
-2.750 0.239 4.713
-2.753 0.268 4.728
-2.750 0.268 4.725
-2.744 0.280 4.727
-2.745 0.291 4.715
-2.737 0.310 4.722
-2.744 0.342 4.741
-2.742 0.337 4.752
-2.738 0.349 4.742
-2.738 0.358 4.739
-2.733 0.366 4.744
-2.730 0.372 4.740
-2.677 0.365 4.593
-2.726 0.386 4.737
-2.727 0.391 4.730
-2.727 0.400 4.743
-2.716 0.432 4.724
-2.616 0.460 4.506
-2.614 0.466 4.492
-2.683 0.575 4.737
-2.692 0.600 4.771
-2.684 0.608 4.773
-2.625 0.729 4.676
-2.488 0.758 4.351
-2.497 0.759 4.359
-2.489 0.762 4.356
-2.490 0.762 4.352
-2.607 0.847 4.698
-2.614 0.882 4.748
-2.614 0.888 4.741
-2.607 0.893 4.741
-2.603 0.904 4.735
-2.605 0.909 4.748
-2.556 1.014 4.680
-2.554 1.017 4.660
-2.539 1.018 4.641
-2.549 1.124 4.728
-2.546 1.128 4.714
-2.513 1.170 4.655
-2.628 1.340 5.069
-2.628 1.340 5.070
-2.628 1.341 5.070
-2.952 -0.519 4.740
-3.018 -0.499 4.922
-3.016 -0.493 4.929
-3.104 -0.455 5.161
-3.114 -0.462 5.182
-2.981 -0.366 4.895
-2.994 -0.364 4.940
-2.994 -0.363 4.933
-2.994 -0.363 4.933
-3.022 -0.354 5.017
-3.043 -0.333 5.073
-2.878 -0.187 4.762
-2.888 -0.186 4.762
-2.878 -0.186 4.763
-2.878 -0.187 4.762
-2.868 -0.159 4.735
-2.865 -0.145 4.748
-2.865 -0.082 4.781
-2.827 -0.037 4.722
-2.829 -0.029 4.713
-2.821 -0.009 4.705
-2.809 0.005 4.698
-2.806 0.020 4.699
-2.808 0.032 4.695
-2.808 0.024 4.691
-2.804 0.043 4.705
-2.807 0.057 4.704
-2.797 0.064 4.705
-2.804 0.064 4.710
-2.797 0.076 4.705
-2.800 0.082 4.705
-2.792 0.108 4.712
-2.798 0.104 4.731
-2.786 0.128 4.700
-2.786 0.138 4.698
-2.782 0.149 4.704
-2.783 0.148 4.703
-2.776 0.158 4.699
-2.778 0.155 4.701
-2.770 0.177 4.692
-2.765 0.183 4.688
-2.769 0.198 4.695
-2.761 0.190 4.692
-2.767 0.214 4.702
-2.762 0.222 4.700
-2.762 0.237 4.709
-2.761 0.244 4.706
-2.755 0.259 4.713
-2.744 0.303 4.708
-2.743 0.317 4.713
-2.746 0.349 4.735
-2.749 0.351 4.734
-2.745 0.357 4.732
-2.737 0.371 4.727
-2.731 0.391 4.722
-2.726 0.427 4.725
-2.718 0.534 4.765
-2.704 0.608 4.775
-2.671 0.662 4.721
-2.671 0.662 4.720
-2.663 0.667 4.723
-2.665 0.673 4.713
-2.641 0.732 4.689
-2.482 0.729 4.277
-2.482 0.730 4.280
-2.488 0.741 4.312
-2.486 0.743 4.317
-2.491 0.744 4.314
-2.486 0.746 4.311
-2.489 0.744 4.314
-2.618 0.843 4.705
-2.620 0.878 4.743
-2.626 0.877 4.738
-2.622 0.889 4.734
-2.614 0.895 4.735
-2.596 0.975 4.717
-2.588 0.981 4.705
-2.566 1.015 4.671
-2.566 1.011 4.683
-2.556 1.109 4.722
-2.557 1.120 4.713
-2.551 1.131 4.706
-2.549 1.131 4.698
-2.543 1.139 4.683
-2.543 1.136 4.680
-2.536 1.149 4.691
-2.521 1.169 4.656
-2.636 1.337 5.047
-2.645 1.340 5.062
-2.649 1.614 5.266
-3.014 -0.494 4.882
-3.011 -0.485 4.878
-3.031 -0.490 4.925
-3.031 -0.489 4.934
-3.028 -0.484 4.928
-3.137 -0.466 5.217
-3.125 -0.461 5.192
-3.109 -0.455 5.156
-3.105 -0.443 5.146
-2.980 -0.378 4.863
-2.979 -0.370 4.867
-2.992 -0.362 4.896
-2.996 -0.363 4.904
-3.003 -0.359 4.935
-3.003 -0.359 4.934
-3.003 -0.359 4.934
-3.028 -0.353 4.993
-3.113 -0.328 5.234
-3.112 -0.328 5.234
-3.112 -0.329 5.237
-3.111 -0.321 5.241
-2.876 -0.089 4.781
-2.876 -0.081 4.772
-2.864 -0.073 4.761
-2.861 -0.069 4.744
-2.851 -0.057 4.736
-2.842 -0.036 4.720
-2.832 -0.022 4.710
-2.819 -0.000 4.695
-2.812 0.017 4.690
-2.815 0.026 4.678
-2.815 0.028 4.690
-2.814 0.042 4.689
-2.812 0.050 4.699
-2.812 0.065 4.700
-2.793 0.111 4.685
-2.793 0.117 4.695
-2.798 0.124 4.698
-2.793 0.138 4.695
-2.792 0.147 4.695
-2.790 0.144 4.698
-2.784 0.157 4.695
-2.788 0.154 4.695
-2.779 0.166 4.691
-2.782 0.172 4.687
-2.774 0.187 4.693
-2.779 0.193 4.688
-2.770 0.192 4.684
-2.777 0.204 4.692
-2.769 0.210 4.693
-2.770 0.222 4.694
-2.773 0.228 4.696
-2.772 0.234 4.699
-2.773 0.255 4.714
-2.767 0.273 4.703
-2.765 0.270 4.708
-2.752 0.298 4.698
-2.752 0.323 4.704
-2.756 0.351 4.731
-2.756 0.351 4.729
-2.746 0.364 4.728
-2.747 0.370 4.715
-2.740 0.376 4.721
-2.741 0.383 4.713
-2.738 0.396 4.718
-2.735 0.406 4.725
-2.732 0.420 4.717
-2.717 0.441 4.701
-2.717 0.544 4.755
-2.572 0.609 4.420
-2.557 0.616 4.398
-2.670 0.667 4.710
-2.670 0.674 4.702
-2.657 0.697 4.701
-2.659 0.704 4.711
-2.651 0.740 4.698
-2.485 0.728 4.259
-2.480 0.728 4.249
-2.631 0.848 4.707
-2.626 0.858 4.719
-2.631 0.849 4.711
-2.632 0.870 4.741
-2.621 0.893 4.728
-2.620 0.906 4.732
-2.607 0.965 4.719
-2.598 0.986 4.718
-2.598 0.981 4.716
-2.597 0.991 4.702
-2.584 1.003 4.685
-2.580 1.000 4.667
-2.575 1.002 4.674
-2.578 1.013 4.681
-2.579 1.010 4.678
-2.559 1.115 4.702
-2.557 1.123 4.697
-2.557 1.132 4.694
-2.550 1.142 4.678
-2.544 1.149 4.682
-2.544 1.154 4.672
-2.506 1.178 4.603
-2.651 1.609 5.228
-2.643 1.600 5.199
-2.651 1.611 5.235
-3.030 -0.495 4.903
-3.009 -0.481 4.856
-3.092 -0.488 5.040
-3.128 -0.469 5.154
-2.980 -0.370 4.843
-2.984 -0.365 4.862
-2.997 -0.363 4.903
-3.008 -0.359 4.909
-3.035 -0.342 4.995
-3.052 -0.336 5.058
-3.055 -0.336 5.049
-3.052 -0.326 5.045
-3.052 -0.326 5.044
-3.123 -0.336 5.228
-3.121 -0.325 5.235
-2.888 -0.089 4.779
-2.865 -0.056 4.737
-2.865 -0.049 4.741
-2.865 -0.049 4.742
-2.856 -0.043 4.729
-2.858 -0.036 4.721
-2.855 -0.027 4.719
-2.835 0.004 4.693
-2.831 0.006 4.695
-2.829 0.014 4.680
-2.823 0.019 4.684
-2.821 0.066 4.698
-2.796 0.117 4.663
-2.800 0.130 4.693
-2.804 0.137 4.691
-2.799 0.144 4.691
-2.795 0.154 4.692
-2.797 0.160 4.687
-2.790 0.160 4.691
-2.788 0.172 4.673
-2.788 0.165 4.689
-2.780 0.177 4.665
-2.784 0.192 4.675
-2.782 0.186 4.682
-2.783 0.200 4.677
-2.783 0.193 4.678
-2.780 0.196 4.687
-2.781 0.197 4.688
-2.781 0.207 4.677
-2.777 0.221 4.685
-2.784 0.229 4.701
-2.784 0.229 4.701
-2.783 0.228 4.699
-2.780 0.256 4.701
-2.774 0.269 4.704
-2.776 0.274 4.701
-2.765 0.291 4.683
-2.754 0.322 4.693
-2.765 0.344 4.720
-2.756 0.358 4.723
-2.756 0.358 4.723
-2.757 0.364 4.715
-2.747 0.376 4.705
-2.756 0.370 4.706
-2.747 0.400 4.714
-2.739 0.428 4.701
-2.739 0.421 4.708
-2.732 0.433 4.703
-2.732 0.441 4.696
-2.725 0.552 4.742
-2.720 0.560 4.746
-2.721 0.575 4.747
-2.716 0.590 4.752
-2.716 0.590 4.752
-2.717 0.600 4.762
-2.501 0.725 4.279
-2.494 0.729 4.276
-2.496 0.725 4.284
-2.514 0.751 4.328
-2.645 0.860 4.720
-2.634 0.891 4.729
-2.630 0.903 4.726
-2.630 0.911 4.710
-2.598 0.934 4.650
-2.598 0.934 4.649
-2.614 0.974 4.710
-2.607 0.978 4.709
-2.607 0.972 4.713
-2.607 0.987 4.706
-2.601 0.992 4.709
-2.599 0.996 4.696
-2.601 1.003 4.698
-2.595 1.006 4.682
-2.586 1.009 4.681
-2.584 1.008 4.672
-2.563 1.116 4.676
-2.556 1.136 4.675
-2.555 1.141 4.664
-2.549 1.154 4.660
-2.547 1.187 4.676
-2.510 1.172 4.569
-2.646 1.335 5.026
-2.650 1.338 5.035
-3.021 -0.481 4.854
-3.056 -0.487 4.949
-3.108 -0.445 5.078
-2.983 -0.363 4.829
-3.007 -0.358 4.903
-3.029 -0.347 4.939
-3.031 -0.346 4.967
-3.031 -0.347 4.970
-3.031 -0.340 4.949
-3.031 -0.345 4.964
-3.054 -0.328 5.022
-3.054 -0.329 5.036
-3.054 -0.328 5.026
-2.900 -0.096 4.784
-2.887 -0.080 4.761
-2.798 0.109 4.647
-2.801 0.123 4.646
-2.810 0.137 4.685
-2.807 0.144 4.688
-2.805 0.153 4.679
-2.794 0.165 4.674
-2.795 0.172 4.664
-2.788 0.253 4.697
-2.782 0.258 4.702
-2.783 0.268 4.707
-2.786 0.267 4.706
-2.785 0.265 4.710
-2.786 0.267 4.706
-2.785 0.265 4.710
-2.776 0.281 4.681
-2.765 0.318 4.677
-2.765 0.328 4.689
-2.767 0.359 4.719
-2.740 0.436 4.698
-2.743 0.443 4.696
-2.742 0.443 4.697
-2.736 0.448 4.695
-2.744 0.451 4.697
-2.739 0.456 4.700
-2.742 0.470 4.704
-2.730 0.558 4.736
-2.730 0.564 4.738
-2.731 0.567 4.734
-2.723 0.572 4.737
-2.724 0.585 4.741
-2.720 0.622 4.745
-2.720 0.614 4.752
-2.631 0.728 4.600
-2.511 0.740 4.306
-2.517 0.750 4.322
-2.653 0.857 4.731
-2.658 0.860 4.731
-2.637 0.909 4.710
-2.620 0.976 4.703
-2.615 0.988 4.700
-2.615 0.981 4.706
-2.605 0.992 4.693
-2.606 0.997 4.686
-2.594 1.010 4.667
-2.554 1.148 4.657
-2.556 1.156 4.657
-2.559 1.148 4.646
-2.560 1.149 4.648
-2.558 1.187 4.677
-2.678 1.351 5.080
-3.029 -0.485 4.851
-3.020 -0.474 4.820
-2.984 -0.364 4.809
-3.028 -0.345 4.931
-3.056 -0.322 5.006
-3.082 -0.284 5.103
-2.795 0.119 4.614
-2.794 0.119 4.613
-2.815 0.144 4.666
-2.811 0.157 4.669
-2.802 0.165 4.662
-2.796 0.180 4.659
-2.804 0.182 4.667
-2.790 0.185 4.650
-2.800 0.186 4.668
-2.796 0.188 4.661
-2.795 0.255 4.690
-2.797 0.250 4.703
-2.788 0.260 4.687
-2.788 0.262 4.686
-2.795 0.257 4.688
-2.791 0.275 4.689
-2.790 0.269 4.685
-2.784 0.283 4.690
-2.775 0.287 4.654
-2.775 0.287 4.654
-2.778 0.329 4.689
-2.778 0.339 4.701
-2.779 0.338 4.699
-2.776 0.360 4.710
-2.778 0.368 4.705
-2.768 0.367 4.705
-2.770 0.375 4.700
-2.752 0.425 4.698
-2.748 0.436 4.695
-2.748 0.451 4.686
-2.751 0.445 4.693
-2.745 0.464 4.695
-2.749 0.483 4.714
-2.746 0.494 4.718
-2.744 0.520 4.710
-2.740 0.526 4.709
-2.737 0.537 4.721
-2.736 0.552 4.725
-2.737 0.562 4.728
-2.738 0.564 4.729
-2.737 0.583 4.734
-2.733 0.603 4.746
-2.728 0.596 4.742
-2.677 0.654 4.637
-2.651 0.722 4.603
-2.665 0.875 4.741
-2.661 0.881 4.739
-2.665 0.886 4.733
-2.634 0.913 4.684
-2.630 0.912 4.683
-2.624 0.945 4.669
-2.626 0.947 4.669
-2.621 0.948 4.679
-2.630 0.962 4.689
-2.627 0.974 4.690
-2.621 0.982 4.697
-2.614 0.994 4.688
-2.612 1.003 4.679
-2.603 1.004 4.665
-2.563 1.156 4.645
-2.563 1.177 4.669
-2.565 1.177 4.652
-2.571 1.190 4.675
-2.564 1.191 4.662
-2.743 1.449 5.273
-3.023 -0.477 4.795
-3.019 -0.478 4.793
-3.034 -0.468 4.839
-3.036 -0.458 4.839
-3.103 -0.437 5.026
-3.079 -0.413 4.989
-2.996 -0.372 4.806
-3.023 -0.382 4.866
-3.025 -0.336 4.902
-3.075 -0.292 5.028
-3.091 -0.286 5.079
-2.895 -0.017 4.747
-2.882 -0.000 4.740
-2.885 -0.006 4.744
-2.871 0.013 4.711
-2.871 0.013 4.710
-2.863 0.025 4.706
-2.812 0.165 4.662
-2.805 0.186 4.660
-2.808 0.209 4.661
-2.803 0.257 4.683
-2.810 0.250 4.688
-2.796 0.264 4.678
-2.794 0.262 4.680
-2.795 0.267 4.674
-2.796 0.271 4.673
-2.797 0.276 4.675
-2.796 0.285 4.681
-2.785 0.361 4.704
-2.784 0.360 4.703
-2.779 0.378 4.689
-2.770 0.378 4.688
-2.775 0.393 4.692
-2.768 0.405 4.690
-2.767 0.419 4.686
-2.759 0.423 4.688
-2.764 0.431 4.684
-2.760 0.443 4.682
-2.756 0.435 4.687
-2.752 0.459 4.684
-2.751 0.460 4.682
-2.751 0.471 4.686
-2.750 0.463 4.683
-2.760 0.484 4.706
-2.752 0.477 4.698
-2.754 0.491 4.707
-2.751 0.500 4.708
-2.751 0.508 4.703
-2.752 0.518 4.702
-2.743 0.556 4.713
-2.745 0.561 4.720
-2.739 0.570 4.715
-2.739 0.592 4.727
-2.739 0.596 4.730
-2.736 0.597 4.733
-2.738 0.623 4.732
-2.737 0.615 4.742
-2.649 0.601 4.516
-2.649 0.601 4.519
-2.722 0.741 4.770
-2.678 0.878 4.754
-2.644 0.905 4.684
-2.641 0.912 4.670
-2.643 0.911 4.662
-2.638 0.922 4.661
-2.635 0.938 4.668
-2.630 0.959 4.664
-2.623 0.996 4.683
-2.612 1.007 4.667
-2.611 1.071 4.691
-2.611 1.072 4.677
-2.610 1.074 4.675
-2.567 1.187 4.643
-2.577 1.195 4.665
-2.752 1.441 5.265
-2.752 1.441 5.265
-2.751 1.442 5.266
-3.012 -0.480 4.754
-3.030 -0.478 4.789
-3.012 -0.480 4.754
-3.031 -0.479 4.793
-3.033 -0.473 4.815
-3.032 -0.473 4.810
-3.035 -0.479 4.816
-3.086 -0.418 4.968
-3.031 -0.378 4.863
-3.030 -0.383 4.850
-3.105 -0.375 5.036
-3.031 -0.336 4.878
-3.030 -0.336 4.882
-2.917 -0.050 4.753
-2.899 -0.011 4.748
-2.900 0.001 4.743
-2.896 0.008 4.739
-2.873 0.019 4.709
-2.873 0.027 4.709
-2.817 0.250 4.680
-2.812 0.246 4.672
-2.815 0.243 4.680
-2.808 0.256 4.670
-2.807 0.270 4.667
-2.802 0.264 4.673
-2.804 0.271 4.667
-2.805 0.277 4.664
-2.794 0.314 4.671
-2.792 0.358 4.694
-2.793 0.366 4.689
-2.787 0.376 4.682
-2.785 0.368 4.694
-2.782 0.386 4.687
-2.783 0.389 4.679
-2.777 0.403 4.691
-2.777 0.411 4.686
-2.768 0.438 4.671
-2.762 0.451 4.681
-2.760 0.456 4.680
-2.757 0.468 4.681
-2.758 0.466 4.685
-2.762 0.490 4.700
-2.763 0.493 4.694
-2.763 0.493 4.693
-2.758 0.502 4.701
-2.755 0.525 4.688
-2.750 0.533 4.701
-2.750 0.533 4.701
-2.751 0.546 4.702
-2.751 0.552 4.703
-2.750 0.560 4.704
-2.750 0.569 4.718
-2.747 0.578 4.723
-2.745 0.576 4.717
-2.744 0.580 4.717
-2.750 0.597 4.725
-2.746 0.604 4.730
-2.751 0.611 4.730
-2.743 0.611 4.733
-2.737 0.732 4.764
-2.710 0.742 4.722
-2.649 0.909 4.657
-2.646 0.920 4.654
-2.643 0.932 4.655
-2.641 0.931 4.655
-2.641 0.947 4.668
-2.639 0.943 4.655
-2.642 0.969 4.684
-2.640 0.977 4.687
-2.640 0.995 4.683
-2.631 1.007 4.680
-2.630 1.020 4.681
-2.618 1.064 4.666
-2.617 1.067 4.666
-2.617 1.063 4.680
-2.595 1.077 4.614
-2.574 1.161 4.621
-2.574 1.159 4.630
-2.569 1.188 4.633
-2.574 1.188 4.626
-2.760 1.431 5.230
-2.754 1.426 5.229
-2.763 1.445 5.264
-2.769 1.456 5.272
-3.044 -0.380 4.867
-3.037 -0.335 4.857
-3.030 -0.333 4.848
-3.061 -0.309 4.928
-3.087 -0.317 4.988
-3.042 -0.284 4.893
-2.918 -0.043 4.739
-2.918 -0.041 4.746
-2.915 -0.027 4.739
-2.909 -0.023 4.732
-2.909 -0.023 4.732
-2.911 -0.013 4.737
-2.908 0.001 4.734
-2.912 -0.001 4.741
-2.903 0.008 4.739
-2.904 0.008 4.734
-2.900 0.015 4.727
-2.891 0.023 4.727
-2.890 0.031 4.709
-2.883 0.043 4.708
-2.877 0.045 4.700
-2.874 0.051 4.699
-2.871 0.057 4.694
-2.816 0.208 4.633
-2.816 0.208 4.633
-2.826 0.243 4.682
-2.825 0.251 4.672
-2.817 0.256 4.661
-2.815 0.269 4.658
-2.812 0.271 4.664
-2.812 0.263 4.664
-2.809 0.263 4.663
-2.805 0.284 4.658
-2.803 0.285 4.658
-2.806 0.292 4.661
-2.806 0.292 4.661
-2.806 0.292 4.661
-2.809 0.308 4.666
-2.801 0.358 4.686
-2.791 0.384 4.673
-2.784 0.406 4.664
-2.785 0.399 4.672
-2.778 0.419 4.668
-2.776 0.433 4.664
-2.773 0.445 4.660
-2.767 0.451 4.663
-2.765 0.463 4.672
-2.761 0.473 4.653
-2.771 0.515 4.696
-2.771 0.511 4.697
-2.761 0.520 4.690
-2.757 0.538 4.689
-2.758 0.549 4.684
-2.753 0.559 4.697
-2.754 0.567 4.697
-2.754 0.565 4.688
-2.760 0.587 4.708
-2.750 0.590 4.705
-2.755 0.604 4.727
-2.757 0.620 4.722
-2.752 0.624 4.720
-2.748 0.631 4.721
-2.741 0.638 4.718
-2.732 0.638 4.694
-2.743 0.642 4.704
-2.738 0.683 4.731
-2.749 0.700 4.749
-2.746 0.708 4.754
-2.735 0.743 4.762
-2.739 0.767 4.764
-2.735 0.782 4.760
-2.712 0.882 4.784
-2.712 0.884 4.762
-2.712 0.879 4.785
-2.654 0.916 4.647
-2.654 0.915 4.646
-2.653 0.915 4.648
-2.650 0.927 4.645
-2.647 0.938 4.641
-2.640 0.980 4.647
-2.640 1.001 4.672
-2.637 1.015 4.677
-2.625 1.057 4.659
-2.625 1.057 4.657
-2.619 1.069 4.657
-2.617 1.071 4.657
-2.608 1.075 4.625
-2.607 1.074 4.620
-2.584 1.072 4.582
-2.723 1.377 5.072
-2.761 1.420 5.204
-2.766 1.434 5.221
-3.036 -0.466 4.772
-3.093 -0.419 4.940
-3.057 -0.383 4.863
-3.034 -0.324 4.835
-3.062 -0.304 4.922
-3.041 -0.294 4.885
-2.923 -0.034 4.735
-2.918 -0.013 4.728
-2.919 -0.019 4.730
-2.916 -0.005 4.731
-2.918 -0.001 4.737
-2.915 0.001 4.731
-2.910 0.008 4.732
-2.907 0.015 4.733
-2.908 0.016 4.718
-2.899 0.023 4.719
-2.894 0.029 4.713
-2.891 0.040 4.697
-2.882 0.051 4.693
-2.886 0.051 4.698
-2.885 0.058 4.685
-2.880 0.071 4.680
-2.873 0.080 4.672
-2.871 0.082 4.673
-2.872 0.081 4.672
-2.804 0.216 4.595
-2.804 0.216 4.595
-2.822 0.248 4.662
-2.826 0.254 4.652
-2.820 0.262 4.655
-2.819 0.275 4.651
-2.811 0.278 4.653
-2.818 0.283 4.654
-2.813 0.285 4.652
-2.808 0.315 4.666
-2.805 0.321 4.662
-2.801 0.336 4.643
-2.810 0.358 4.678
-2.801 0.366 4.677
-2.798 0.365 4.666
-2.799 0.381 4.675
-2.793 0.395 4.664
-2.787 0.415 4.657
-2.783 0.428 4.655
-2.781 0.459 4.665
-2.781 0.455 4.662
-2.781 0.455 4.662
-2.778 0.460 4.666
-2.774 0.465 4.661
-2.779 0.508 4.689
-2.774 0.516 4.678
-2.767 0.524 4.680
-2.763 0.530 4.679
-2.765 0.543 4.680
-2.765 0.555 4.676
-2.760 0.557 4.682
-2.759 0.565 4.690
-2.760 0.594 4.710
-2.761 0.607 4.711
-2.764 0.614 4.710
-2.755 0.629 4.715
-2.759 0.621 4.712
-2.757 0.636 4.714
-2.757 0.643 4.710
-2.751 0.662 4.718
-2.760 0.684 4.749
-2.755 0.699 4.746
-2.750 0.719 4.742
-2.755 0.719 4.751
-2.746 0.730 4.753
-2.744 0.742 4.753
-2.744 0.754 4.759
-2.743 0.761 4.754
-2.746 0.762 4.752
-2.746 0.776 4.758
-2.746 0.776 4.758
-2.745 0.790 4.762
-2.744 0.790 4.763
-2.737 0.796 4.769
-2.739 0.801 4.755
-2.733 0.805 4.766
-2.726 0.857 4.774
-2.728 0.864 4.770
-2.722 0.870 4.776
-2.723 0.889 4.765
-2.666 0.904 4.653
-2.662 0.912 4.640
-2.659 0.923 4.638
-2.657 0.934 4.634
-2.661 0.965 4.660
-2.658 0.973 4.667
-2.644 1.009 4.667
-2.646 1.020 4.662
-2.644 1.026 4.674
-2.625 1.068 4.639
-2.616 1.057 4.619
-2.623 1.063 4.646
-2.624 1.060 4.642
-2.616 1.068 4.618
-2.604 1.076 4.599
-2.579 1.152 4.585
-2.710 1.327 4.987
-2.720 1.342 5.033
-2.742 1.350 5.080
-3.043 -0.333 4.827
-3.037 -0.334 4.822
-3.073 -0.307 4.921
-3.059 -0.291 4.890
-3.130 -0.116 5.152
-2.926 -0.019 4.733
-2.923 -0.005 4.730
-2.918 0.008 4.728
-2.903 0.028 4.702
-2.911 0.024 4.706
-2.902 0.048 4.694
-2.896 0.057 4.685
-2.888 0.058 4.687
-2.901 0.056 4.698
-2.888 0.066 4.678
-2.881 0.078 4.676
-2.881 0.085 4.665
-2.873 0.103 4.654
-2.855 0.124 4.636
-2.863 0.124 4.644
-2.830 0.244 4.648
-2.827 0.267 4.643
-2.829 0.275 4.646
-2.823 0.283 4.641
-2.820 0.289 4.647
-2.815 0.302 4.644
-2.817 0.311 4.653
-2.817 0.310 4.654
-2.826 0.321 4.663
-2.817 0.319 4.661
-2.817 0.327 4.666
-2.818 0.338 4.665
-2.820 0.351 4.677
-2.816 0.374 4.668
-2.806 0.385 4.657
-2.783 0.444 4.642
-2.778 0.451 4.637
-2.778 0.451 4.637
-2.783 0.465 4.655
-2.782 0.462 4.643
-2.783 0.463 4.652
-2.781 0.462 4.641
-2.783 0.463 4.652
-2.788 0.508 4.688
-2.783 0.514 4.680
-2.779 0.525 4.679
-2.771 0.536 4.672
-2.771 0.549 4.670
-2.777 0.583 4.694
-2.774 0.595 4.698
-2.765 0.597 4.693
-2.771 0.607 4.698
-2.767 0.619 4.700
-2.764 0.627 4.700
-2.764 0.635 4.697
-2.764 0.635 4.697
-2.764 0.635 4.697
-2.761 0.692 4.738
-2.765 0.706 4.748
-2.756 0.712 4.740
-2.758 0.727 4.741
-2.752 0.741 4.741
-2.745 0.752 4.735
-2.754 0.768 4.750
-2.751 0.768 4.750
-2.752 0.787 4.764
-2.748 0.799 4.753
-2.738 0.799 4.737
-2.740 0.858 4.766
-2.735 0.851 4.768
-2.739 0.857 4.764
-2.735 0.851 4.768
-2.739 0.858 4.766
-2.737 0.863 4.764
-2.719 0.889 4.737
-2.721 0.895 4.760
-2.668 0.895 4.619
-2.668 0.895 4.619
-2.670 0.910 4.637
-2.665 0.929 4.629
-2.660 0.944 4.638
-2.660 1.001 4.651
-2.653 1.009 4.654
-2.652 1.006 4.656
-2.654 1.017 4.649
-2.648 1.028 4.658
-2.635 1.058 4.648
-2.632 1.055 4.637
-2.631 1.065 4.636
-2.637 1.063 4.642
-2.626 1.074 4.625
-2.619 1.074 4.614
-2.600 1.167 4.608
-2.579 1.156 4.550
-3.075 -0.294 4.904
-3.110 -0.114 5.081
-3.152 -0.120 5.175
-3.080 -0.079 5.042
-3.081 -0.069 5.035
-3.138 -0.046 5.175
-2.881 0.092 4.662
-2.881 0.098 4.657
-2.878 0.099 4.654
-2.870 0.106 4.627
-2.870 0.105 4.641
-2.872 0.106 4.633
-2.863 0.114 4.624
-2.863 0.121 4.622
-2.860 0.122 4.621
-2.838 0.243 4.648
-2.846 0.245 4.647
-2.833 0.252 4.640
-2.835 0.269 4.642
-2.835 0.261 4.640
-2.827 0.276 4.636
-2.827 0.288 4.635
-2.832 0.314 4.651
-2.826 0.314 4.657
-2.824 0.360 4.677
-2.823 0.359 4.677
-2.823 0.359 4.677
-2.819 0.366 4.671
-2.814 0.397 4.654
-2.794 0.416 4.640
-2.795 0.426 4.639
-2.793 0.433 4.624
-2.786 0.436 4.619
-2.786 0.436 4.619
-2.796 0.510 4.685
-2.778 0.529 4.666
-2.783 0.536 4.658
-2.777 0.541 4.659
-2.776 0.554 4.655
-2.779 0.604 4.697
-2.776 0.616 4.694
-2.776 0.616 4.691
-2.771 0.633 4.686
-2.771 0.643 4.690
-2.764 0.642 4.695
-2.764 0.642 4.695
-2.764 0.658 4.703
-2.774 0.671 4.722
-2.776 0.674 4.718
-2.774 0.682 4.733
-2.772 0.700 4.744
-2.764 0.727 4.743
-2.768 0.721 4.741
-2.759 0.739 4.730
-2.760 0.753 4.730
-2.754 0.761 4.737
-2.753 0.777 4.724
-2.743 0.847 4.751
-2.739 0.838 4.743
-2.748 0.880 4.767
-2.747 0.881 4.766
-2.685 0.918 4.638
-2.675 0.924 4.623
-2.669 0.935 4.622
-2.671 0.941 4.625
-2.668 0.948 4.619
-2.670 0.962 4.632
-2.673 0.973 4.655
-2.661 1.014 4.636
-2.660 1.008 4.645
-2.661 1.008 4.647
-2.656 1.024 4.640
-2.656 1.050 4.644
-2.653 1.053 4.641
-2.635 1.071 4.626
-2.605 1.170 4.599
-3.093 -0.283 4.912
-3.139 -0.204 5.076
-3.095 -0.119 5.005
-3.163 -0.129 5.164
-3.142 -0.126 5.122
-3.126 -0.108 5.109
-3.084 -0.033 5.032
-3.144 0.024 5.213
-2.913 0.103 4.710
-2.860 0.113 4.587
-2.842 0.255 4.636
-2.843 0.267 4.631
-2.844 0.270 4.639
-2.844 0.263 4.638
-2.835 0.276 4.632
-2.842 0.276 4.631
-2.841 0.276 4.632
-2.834 0.287 4.624
-2.838 0.281 4.625
-2.834 0.297 4.631
-2.831 0.299 4.635
-2.827 0.305 4.630
-2.835 0.306 4.637
-2.834 0.315 4.646
-2.827 0.370 4.661
-2.823 0.384 4.662
-2.813 0.402 4.644
-2.802 0.415 4.627
-2.794 0.430 4.616
-2.789 0.442 4.592
-2.784 0.450 4.608
-2.785 0.449 4.603
-2.779 0.457 4.591
-2.788 0.471 4.608
-2.790 0.466 4.631
-2.785 0.470 4.611
-2.784 0.471 4.616
-2.801 0.513 4.679
-2.801 0.519 4.672
-2.783 0.548 4.649
-2.783 0.563 4.653
-2.792 0.585 4.679
-2.787 0.601 4.694
-2.778 0.623 4.684
-2.781 0.632 4.681
-2.779 0.630 4.676
-2.778 0.647 4.680
-2.777 0.665 4.697
-2.784 0.716 4.735
-2.772 0.727 4.734
-2.766 0.733 4.722
-2.763 0.765 4.726
-2.756 0.780 4.710
-2.755 0.794 4.729
-2.747 0.831 4.728
-2.757 0.886 4.777
-2.698 0.906 4.645
-2.678 0.933 4.615
-2.678 0.938 4.607
-2.675 0.957 4.620
-2.651 0.958 4.563
-2.669 1.008 4.642
-2.658 1.030 4.629
-2.660 1.037 4.624
-2.664 1.050 4.637
-3.213 -0.404 5.103
-3.159 -0.312 5.043
-3.159 -0.312 5.045
-3.104 -0.292 4.905
-3.119 -0.182 5.003
-3.106 -0.142 5.006
-3.107 -0.129 5.008
-3.132 -0.046 5.115
-3.132 -0.046 5.115
-3.079 -0.020 4.998
-3.078 -0.023 5.000
-3.157 0.014 5.208
-3.110 0.048 5.121
-2.860 0.122 4.569
-2.849 0.273 4.629
-2.845 0.281 4.625
-2.848 0.276 4.633
-2.845 0.293 4.619
-2.841 0.287 4.623
-2.849 0.287 4.622
-2.841 0.298 4.615
-2.846 0.320 4.647
-2.843 0.312 4.636
-2.846 0.349 4.658
-2.838 0.353 4.655
-2.835 0.367 4.657
-2.830 0.379 4.649
-2.835 0.375 4.646
-2.824 0.392 4.645
-2.825 0.400 4.633
-2.813 0.408 4.629
-2.785 0.465 4.580
-2.785 0.465 4.580
-2.811 0.519 4.663
-2.801 0.525 4.661
-2.801 0.530 4.646
-2.793 0.537 4.640
-2.789 0.556 4.642
-2.788 0.573 4.661
-2.795 0.597 4.679
-2.792 0.616 4.678
-2.790 0.609 4.683
-2.786 0.622 4.678
-2.789 0.629 4.673
-2.785 0.639 4.673
-2.785 0.649 4.679
-2.779 0.650 4.680
-2.785 0.659 4.690
-2.784 0.680 4.707
-2.781 0.724 4.719
-2.781 0.735 4.723
-2.777 0.734 4.707
-2.770 0.740 4.706
-2.756 0.772 4.691
-2.761 0.773 4.700
-2.762 0.785 4.700
-2.755 0.793 4.704
-2.755 0.791 4.705
-2.756 0.836 4.723
-2.702 0.914 4.635
-2.685 0.933 4.605
-2.685 0.928 4.618
-2.679 0.945 4.601
-2.685 0.985 4.629
-2.677 1.009 4.637
-2.670 1.025 4.636
-2.674 1.024 4.631
-2.667 1.029 4.622
-2.671 1.048 4.627
-2.669 1.041 4.631
-3.165 -0.576 4.870
-3.157 -0.567 4.864
-3.094 -0.459 4.768
-3.225 -0.392 5.123
-3.227 -0.396 5.133
-3.165 -0.317 5.029
-3.167 -0.309 5.040
-3.167 -0.309 5.039
-3.118 -0.291 4.914
-3.153 -0.299 5.004
-3.073 -0.271 4.818
-3.126 -0.047 5.063
-3.162 -0.056 5.166
-3.161 0.029 5.193
-3.152 0.026 5.179
-3.152 0.026 5.179
-2.907 0.195 4.685
-2.897 0.195 4.680
-2.909 0.218 4.704
-2.852 0.282 4.626
-2.848 0.299 4.619
-2.854 0.349 4.653
-2.846 0.357 4.650
-2.844 0.364 4.643
-2.844 0.371 4.632
-2.837 0.379 4.642
-2.832 0.388 4.639
-2.839 0.385 4.633
-2.835 0.392 4.632
-2.824 0.405 4.611
-2.813 0.414 4.609
-2.837 0.471 4.677
-2.832 0.471 4.661
-2.837 0.471 4.677
-2.830 0.481 4.665
-2.821 0.507 4.662
-2.799 0.524 4.635
-2.812 0.524 4.652
-2.801 0.532 4.622
-2.799 0.552 4.629
-2.792 0.563 4.630
-2.788 0.568 4.634
-2.800 0.589 4.673
-2.798 0.596 4.672
-2.799 0.609 4.676
-2.794 0.622 4.672
-2.796 0.628 4.666
-2.791 0.635 4.668
-2.792 0.640 4.666
-2.791 0.649 4.665
-2.792 0.663 4.676
-2.792 0.660 4.678
-2.781 0.669 4.669
-2.795 0.686 4.706
-2.793 0.693 4.705
-2.788 0.701 4.705
-2.790 0.703 4.714
-2.790 0.703 4.714
-2.791 0.719 4.720
-2.786 0.726 4.714
-2.765 0.774 4.686
-2.773 0.775 4.701
-2.773 0.775 4.701
-2.761 0.783 4.684
-2.771 0.785 4.691
-2.758 0.789 4.683
-2.756 0.794 4.678
-2.756 0.794 4.679
-2.762 0.790 4.683
-2.761 0.799 4.697
-2.764 0.883 4.728
-2.765 0.882 4.753
-2.767 0.886 4.745
-2.766 0.879 4.745
-2.773 0.886 4.754
-2.713 0.902 4.631
-2.700 0.924 4.608
-2.691 0.939 4.598
-2.687 0.946 4.597
-2.689 0.976 4.608
-2.683 0.995 4.615
-2.686 1.002 4.615
-2.686 1.018 4.637
-2.680 1.022 4.620
-2.674 1.029 4.619
